# .PCD v0.7 - Point Cloud Data file format
VERSION 0.7
FIELDS x y z
SIZE 4 4 4
TYPE F F F
COUNT 1 1 1
WIDTH 1606
HEIGHT 1
VIEWPOINT 0 0 0 1 0 0 0
POINTS 1606
DATA ascii
5.4778852 12.295691 4.4200549
6.4877925 8.5275974 30.646532
5.9576268 7.7217288 30.678883
6.5095978 4.2567177 31.975838
10.275122 2.8024855 35.508438
7.7231431 6.6540389 4.1701641
9.9623499 5.6198702 39.281048
10.971131 5.9708533 23.566513
11.808623 8.1535454 30.109385
3.6433678 1.1864933 54.048622
11.910942 8.9853611 33.839127
10.643397 4.2458105 38.260048
4.6070366 6.3027344 32.396866
9.956892 4.8031087 40.617596
3.693743 1.389134 54.636925
5.4890404 7.5450888 22.844059
10.082815 2.4208934 38.159882
12.849258 5.4306068 35.341988
10.011496 11.194048 15.200418
4.0225277 6.2780762 33.340439
12.486757 7.5047865 31.506647
16.085403 6.6979771 44.659389
13.720373 8.0927267 36.61219
7.6875768 2.917902 48.055462
12.081773 4.8873391 35.136036
11.380801 8.5173492 29.018894
9.6189842 8.5208092 1.2079986
6.2714443 8.3005848 28.868271
9.0972881 1.5230752 40.467083
3.7446783 6.5348911 36.811443
7.0759535 8.6603374 37.758949
12.406998 5.8124037 33.488804
4.4477382 8.3448496 8.1354399
6.7856145 6.575099 3.6798427
11.139484 8.7768345 30.245136
6.4683113 0.76575029 37.196392
6.7278214 5.5402188 21.929701
7.9435415 0.87775487 37.366234
4.4442482 3.9190106 33.803001
7.5335345 5.8133059 13.909873
5.1641903 7.0387998 2.5765321
8.975421 1.3523269 37.830124
3.9030516 6.5885868 33.815224
10.350469 10.553508 9.2255497
7.0372562 5.5880365 18.361195
4.539031 7.2360287 39.818954
10.704309 4.8377008 38.200775
8.0665998 5.9282465 43.647194
6.2486277 5.7230368 26.087406
11.611697 6.8303843 24.917782
7.2794929 12.607141 6.7892118
3.1983449 5.5234094 54.539913
3.3840482 5.5005774 52.439339
7.0796852 0.61127633 44.95517
4.3382559 6.5739441 43.128773
13.60845 3.7678695 48.46365
3.0187578 2.0745897 40.822384
5.7213688 8.3779936 24.887123
7.9629049 5.2502041 19.035156
6.7945995 5.6300664 46.396908
8.5050802 5.394289 43.850426
4.4609203 6.8099318 42.007984
7.800807 0.70249689 42.636185
16.012133 4.2034149 49.834366
5.5727568 8.8259668 22.243685
7.8733988 4.9579234 21.838139
13.51014 6.1527414 51.859695
6.8201861 0.25223953 41.826485
8.8531027 11.809213 15.689833
9.8250093 6.8119082 13.069749
14.82185 6.7169199 49.193317
3.1683996 5.3333116 51.181034
6.1376758 3.2772157 51.926208
16.163408 4.4625902 49.652298
4.9723349 0.39577866 45.916313
13.645279 6.8053646 45.064037
15.848654 4.9158335 51.91087
11.016617 4.1235614 37.364586
6.2925248 2.673908 33.469398
6.7648439 5.7814922 17.235945
12.430079 5.9414916 41.366402
7.8663635 6.5602355 42.524639
5.9659843 8.5266209 26.333771
7.7623644 6.0210156 44.03286
3.1325426 5.5268593 42.379204
6.2363586 6.6387267 2.9084196
10.585349 5.0101194 25.951984
1.8739526 2.2751238 50.098598
5.60009 7.3516006 41.843681
5.1947179 8.525528 35.688885
3.8135588 10.044505 2.7378743
4.2257895 6.9698439 39.878883
12.90941 4.9794731 40.885395
9.2735481 1.7786016 41.137608
10.256981 9.1918049 6.4004164
7.7274704 10.494555 24.753717
6.4736423 0.35915124 39.924904
12.75028 4.5135651 50.973804
6.574439 6.7146673 44.151333
15.385609 6.1732721 39.321999
6.2612524 1.1304737 35.505814
3.5710132 0.80648017 52.013649
6.0240011 7.5996685 29.408436
7.3512077 10.299492 24.96545
10.630831 6.2614822 18.935534
9.3115349 6.9612613 8.7971697
5.4901567 7.3407903 21.719309
4.0961013 1.7212716 38.273968
3.8860912 0.74231482 50.32806
4.0312538 0.9415198 52.46843
7.2531738 9.7127895 27.555355
5.6745253 2.9919958 52.994179
10.592295 9.1409693 30.352173
13.547501 6.9587421 44.064442
6.7701817 2.8524151 33.25634
5.519773 2.9648559 53.346951
6.8235226 5.0661802 28.546635
15.610754 3.7622962 47.835461
4.721633 0.6535722 48.251831
4.4668827 10.084516 9.0394163
7.4098234 7.4699001 40.678165
11.310003 7.416759 19.799713
7.8829937 0.82209826 43.315346
14.561378 7.3744645 44.089291
7.0404062 6.4438877 6.1368237
2.8405132 1.2566984 49.720444
5.2578564 11.451917 9.5046005
10.219471 10.580682 7.1131001
9.3109598 11.720502 4.9941139
3.7332234 5.0670052 55.286766
10.78161 9.2185965 35.787369
4.7216587 11.131983 7.4366565
9.3929443 10.127685 26.470894
6.8167262 10.395113 22.758415
7.3701296 9.560154 33.015965
5.6962423 2.9775791 52.915447
10.820014 9.9503822 18.643042
10.72127 9.3975687 11.019554
8.2749805 2.3288352 46.081959
12.653769 7.7432017 40.117199
9.0529928 11.921021 4.5095582
0.33197993 2.8478365 54.070358
8.7015114 11.774597 16.212173
6.3144984 0.36705405 39.696503
5.6085291 6.9629564 23.453239
9.8769341 11.240648 16.398582
10.267141 3.8372359 39.867237
6.5453019 5.6277518 22.686607
11.912966 8.9340878 33.593136
9.6786785 11.150414 2.4559016
4.2417164 2.6100247 35.640518
12.098395 6.198905 29.448473
15.976536 4.5728302 44.324673
0.72910327 2.1141968 53.985588
9.3413124 11.732047 6.0140319
14.61071 6.5464935 37.340164
7.0129623 5.3622866 21.50631
2.4520688 3.4900956 46.96254
4.1312118 10.068048 6.2177677
6.104867 6.6575022 3.5592823
8.411314 6.8469901 40.44281
5.5289264 6.900394 5.8097534
6.0286698 6.0745597 25.033632
6.8229809 0.29049009 42.924232
4.6513228 0.78009468 39.96817
5.9183826 0.35873848 39.836685
9.6688814 7.9643021 5.3985128
7.6272259 4.5416136 30.0126
6.1106634 7.3617144 42.117889
4.4262333 7.5713682 37.207626
11.879977 4.7204604 35.140099
13.527254 3.4047432 51.134434
8.5713615 12.076977 13.480981
1.6425616 2.5113521 50.50016
4.1663208 9.6395683 6.9650764
9.2486725 7.1712174 6.8314986
7.344007 6.2378387 9.9180126
12.675097 4.7951646 38.386688
2.4162643 3.6486812 45.923733
2.5791912 4.3845978 45.811302
2.6836963 1.2741098 55.218819
7.6494479 9.01021 37.002625
10.161074 9.49543 27.798576
3.3401361 5.2063618 50.018387
9.3200197 2.9552188 43.474533
5.5734091 8.8177023 33.863205
8.5865059 6.8314958 40.03223
4.6692033 0.66486371 48.552872
8.1331129 11.441446 19.280487
1.3193839 4.9514799 53.439903
10.198899 7.8652596 10.517447
7.1670475 12.80454 2.9212899
14.664949 7.4448705 38.2006
2.594378 4.3801575 46.282898
4.2881212 3.7911749 34.166706
7.5762439 3.2327328 32.998508
4.0398684 0.67235339 42.044792
13.964664 6.5058079 50.048454
4.2912493 11.060478 3.909245
4.38094 6.6897821 42.528534
2.5923891 2.4760289 41.890999
8.4161282 12.402706 1.6494743
9.2846727 2.4728434 34.703854
8.1500483 3.1569319 33.348526
15.170469 6.4503794 50.181808
6.0282912 7.687479 40.728241
9.3786459 5.6335921 17.596977
10.408054 10.513416 18.733345
5.916194 7.5504246 41.302948
6.5891194 10.169182 23.142437
15.821604 5.6172514 50.969971
7.7499218 10.120932 26.741367
4.9659595 7.4515228 7.5568447
7.7734098 6.5409327 5.6030545
3.8755548 0.60928154 43.761829
13.030704 3.7654471 51.314117
12.975979 5.1205325 47.909012
5.2516494 7.6563406 16.450912
10.323693 3.545434 39.422394
7.1246748 11.524748 16.927399
10.690679 8.8651009 11.423993
13.211988 5.8515291 48.166115
2.5898364 4.397625 41.876041
10.448559 10.556814 17.734852
10.356273 8.0056143 11.294771
11.372707 8.8503265 22.011604
2.5123737 3.2715025 41.390511
6.1236296 5.9641805 24.371948
6.7139344 12.700143 4.6526699
13.952702 3.8504028 46.949429
3.2454088 4.9895668 37.879086
9.7372208 3.1836529 42.151859
5.4193044 5.5140619 48.717018
7.4036369 0.72823483 44.602314
3.6998985 1.564621 39.943195
2.6550782 4.3221002 47.829536
5.9642658 6.2594557 22.703514
9.9086018 10.431355 23.543678
5.3681545 7.56003 19.307209
3.5986516 6.1182446 39.113594
9.7201996 11.246208 17.600739
3.3908806 5.419342 47.044338
5.1397481 11.478218 8.6731625
6.625845 5.8043919 46.254276
9.9706039 5.6015053 19.469143
4.5112162 2.7607856 55.524227
12.31977 5.7302213 33.535202
7.3421478 8.831419 37.39209
2.0966911 2.3748374 49.39996
3.7623191 0.99034375 47.526909
8.1805077 5.997745 12.698391
10.194102 4.2219968 40.154484
7.4665871 4.5372829 47.545662
7.6341166 6.4857616 6.0368009
4.9919467 7.5563192 9.0454607
2.6100235 4.6360078 49.687862
7.256876 5.1495256 46.719852
12.143885 6.0634098 40.152962
3.4307315 5.2492208 35.969063
7.6134648 2.4191418 47.90023
5.7727184 3.7532091 52.565899
6.135788 8.4157982 31.593616
5.9875689 3.7076893 52.081299
7.437685 4.6318607 29.174713
6.5006466 0.9368279 47.334885
4.4949713 9.0192471 10.366345
5.4579668 9.1457863 19.91802
9.9661798 11.097595 17.308514
12.186265 4.8417773 35.360424
7.63727 5.1354618 20.780788
4.7636404 6.6012077 44.165764
4.966433 6.2476711 46.141457
5.8878355 8.9271202 35.452469
5.7808394 12.402576 4.9834375
6.6800833 0.39480138 44.742851
7.3197742 9.8469677 27.122564
11.312787 7.6018991 19.36021
5.0150876 10.438816 12.337318
13.487797 4.6722646 38.915657
8.1442852 9.7050743 32.736221
16.173588 6.5896554 44.650681
13.828862 6.3613806 51.542374
5.4116993 7.2498617 16.144207
10.58253 9.3405972 9.8113146
1.7128754 1.3440324 54.219467
13.954617 3.5253534 48.942513
7.4521942 10.839828 22.134529
7.0805182 6.9979553 42.770859
9.0499802 6.2863235 12.765259
15.684803 6.4286919 49.041496
11.619171 6.5615788 25.509659
13.603748 3.5562744 49.746197
3.3394275 1.1125751 45.332138
6.0654297 0.48973867 39.134575
5.3177423 9.8276253 16.537071
14.257277 7.8118181 37.758259
13.323084 3.5832932 50.666817
2.6593623 2.9431319 40.857883
2.4322743 3.4181221 46.487328
5.6815872 4.9163885 50.512085
7.2332392 9.2927189 36.037598
7.2530975 1.6836597 34.669788
8.7662573 8.8113642 37.101685
6.3650055 8.8958044 27.429272
6.9750304 12.139802 12.202955
2.4628408 2.7741451 46.253433
4.8927155 0.55661464 47.030922
11.812859 6.2128434 27.397369
13.172659 6.1224818 45.559719
13.445388 6.1296287 35.412857
10.218403 7.5539231 12.026158
11.604748 7.8770075 23.237322
10.791272 9.289114 31.890265
9.7283049 11.347917 7.1558313
12.761418 7.0438981 32.371815
13.540279 6.3135552 48.232414
10.227328 10.813791 9.6204157
15.778548 6.0531621 40.655064
6.0194101 6.6084805 10.647789
6.6182246 11.228051 17.223743
12.766675 5.4263492 43.135273
16.900131 5.7064304 47.887451
15.881483 4.2634115 45.390121
6.5295219 3.3509569 32.773163
7.7132673 6.389782 7.2694583
4.2152491 8.4114628 5.5698018
12.86241 6.8467879 42.222374
3.0235486 4.8789911 47.874496
7.6839433 6.2819772 9.2417469
10.269176 5.3001652 22.64349
5.8190112 6.7502265 7.867816
5.9192791 12.378166 5.8569307
6.9380507 9.4406242 34.78653
10.401226 9.8419018 7.5401893
9.20889 9.6371584 31.674618
8.6494198 9.7967234 32.983971
5.335351 8.2110806 20.085709
7.210732 1.2400812 46.734642
3.9915934 4.7959557 33.805603
9.3387699 11.65494 15.435203
5.9853554 9.7425461 22.002735
1.5232641 3.2445686 50.62603
5.0891252 7.1602306 4.1680913
7.4853969 0.69899875 44.155033
6.6287928 0.35718924 40.000053
12.225156 6.1062675 40.572533
6.7235527 9.4162769 33.946789
9.9051619 9.2510376 1.9286238
8.7864332 12.089704 10.782903
2.6496394 4.6379843 49.625168
9.5904255 7.1532221 38.192204
9.9402218 3.1824405 34.703323
8.5281191 2.4662204 45.500305
9.6255522 8.5252752 1.2979233
10.667459 6.3977256 18.671848
9.4619436 5.9065833 16.202763
7.5763912 5.6529026 15.236397
9.0860748 1.7751791 35.208111
9.9365072 5.557025 19.590885
13.366713 3.6245575 50.245316
3.9788985 10.954666 1.1632121
4.8927388 0.43514785 46.094303
1.3569971 2.7696564 51.074677
13.431747 7.5989056 34.862534
11.86381 7.7353649 26.495434
2.7061799 4.7781277 44.93932
7.4348264 1.3414354 46.498535
8.2146521 12.001835 14.723231
16.034416 4.4731612 44.893555
6.1946692 6.6413813 3.2017846
9.6418037 7.0455055 10.228126
11.151483 8.950676 16.849306
8.8108521 4.6667776 23.064468
10.577056 3.221626 35.535408
15.881542 3.9528916 49.611168
10.004601 9.5571575 31.832047
9.3626881 9.7405176 28.701015
11.078095 5.0976562 28.052347
11.156874 6.2240458 23.8433
6.9096766 7.2442226 42.164658
3.8618569 10.223801 3.0101285
11.932096 7.7051635 27.632774
16.071314 6.4490361 42.683533
2.984468 5.4535961 55.192032
9.7909155 9.4912052 29.774719
8.1067944 5.9448934 12.878865
12.890715 3.9485102 51.431591
4.6006875 0.24733046 43.870422
9.4075651 11.703496 11.100038
9.9437275 4.7549591 40.786522
8.0626354 5.0037889 20.93177
5.7566919 10.351315 17.576725
11.111139 9.3755894 19.646679
10.872278 9.7156792 13.227906
7.6220002 5.3884664 18.18565
9.6635237 11.343413 5.7161937
7.3467741 12.621816 6.5264668
7.1970139 4.7794123 26.96916
7.8806067 0.72911572 40.049446
4.8943229 0.77928203 49.694839
13.064393 5.5596838 48.128643
8.7251234 6.834446 6.4905319
14.713642 7.4557438 43.664101
3.0426588 5.4550724 55.166641
7.6757174 6.2829056 9.1696205
2.7465987 1.9366914 46.004128
11.452198 6.2363672 38.960052
4.1179695 10.047255 6.0043173
7.5309715 6.6889038 2.8328815
5.0008459 7.6278391 10.886217
8.1363478 5.6441565 44.087921
9.8224525 9.3624125 35.881218
13.528494 7.0466371 43.734539
6.4161906 12.138403 10.386166
6.8172235 5.280087 23.893425
8.5011559 2.6633306 45.783386
9.5938835 7.5439496 7.0526543
13.879333 3.5147905 49.182472
10.399341 10.629467 11.48718
10.630848 9.188838 31.038658
10.730074 4.7918472 31.473547
16.319954 5.2159953 49.570919
14.011372 3.2321146 51.115852
13.587476 4.6496983 39.028889
8.9438238 5.9445205 41.508015
5.6967802 7.0945091 25.950235
4.9125209 6.0917449 46.754074
11.007035 5.6190348 25.17964
4.8505869 8.3060894 35.225449
10.176641 10.836956 8.7263451
14.289738 3.5215771 48.212921
4.8527842 11.304838 7.6350412
3.6952925 9.2201338 1.3457732
10.880722 4.8795948 31.613857
4.1204443 1.6843774 38.317799
9.3982735 9.8666506 34.319565
16.375782 4.6921501 49.178677
12.298728 4.5799499 36.427559
6.9015212 12.167736 11.778749
9.9314957 5.3802767 20.557467
14.355862 6.4364414 51.640362
8.66049 3.1401465 45.574299
10.173409 9.3434935 29.31209
10.9871 9.6384029 18.791212
6.528861 6.4201231 8.4025564
3.0462418 5.2999654 45.169899
8.0973911 12.600101 1.4779299
7.9260011 12.050604 14.322477
13.132795 4.6401024 45.701859
5.4790044 6.9320927 6.5540204
4.6583638 9.6419077 11.568752
5.2316508 8.6322289 34.836384
9.9803152 8.4169025 6.1108027
6.7971287 6.2996788 10.300025
8.7586803 4.5961871 23.649403
16.201374 6.4060135 43.786583
6.1996398 10.030253 21.980194
8.2615051 12.497653 1.6430718
6.064115 6.3160391 16.779076
3.7983222 4.5690866 34.44268
5.2593374 7.3089137 12.243139
8.5362434 12.107487 13.275744
7.8757839 2.9829834 33.446217
5.7901998 6.6141286 20.431002
9.5211639 11.570285 15.231548
12.978148 6.7243752 42.913227
14.66044 4.2109737 43.018227
5.5474205 7.0259829 17.227325
10.5772 9.2676992 27.3241
7.6646423 12.61744 6.2753692
10.237022 4.1135592 40.026321
9.3457937 10.018601 27.101887
10.19737 5.2637606 22.531422
8.4552574 1.2269311 35.772533
6.7065964 0.29690489 40.714676
8.5168924 4.2849455 26.300241
3.1671441 5.4577947 44.964935
5.3248696 8.4674835 20.03698
3.6748431 2.7684414 37.181923
16.150185 5.5262632 49.800262
11.386176 6.2619352 25.07522
8.4756069 1.0668472 40.772591
4.8020592 2.2860348 54.378937
5.9548731 7.2560849 29.330986
7.3453412 6.6500602 2.6675014
3.799979 10.296377 1.8747727
10.745921 7.4639049 15.751883
13.306116 4.7308707 40.053104
10.122433 3.5383625 40.694576
9.9533176 4.9220233 40.48513
14.203869 5.7770638 36.993111
9.6705818 11.328775 17.098896
3.8747201 8.6960726 2.5030899
15.452925 4.2066298 44.449551
5.1226058 7.4521246 10.037163
7.3771257 4.6797333 30.100536
14.028781 8.1089878 39.030689
14.346354 7.9210205 39.078957
4.1583395 9.6798906 6.966466
9.4167061 9.7954693 28.215065
11.320656 8.5695286 28.303764
5.6658235 7.5409007 25.761402
14.265778 3.2425592 51.924511
9.8470898 10.749685 21.198509
15.991421 5.7127142 41.843544
5.7213197 0.090785824 42.405472
8.8066463 6.8881063 39.333542
10.025356 6.3910189 38.493912
12.508297 8.8338013 35.862747
11.713239 4.3372784 35.643177
6.6548972 9.8790493 24.815186
5.8080211 0.63395751 47.128834
16.312922 4.9093738 44.659943
12.068542 4.8932371 37.961811
16.813354 5.9152608 47.831558
10.184855 4.7089877 25.991589
12.763192 5.0253744 50.908432
4.6637168 0.31020421 44.781349
6.4710426 7.0732074 43.12685
6.9901314 6.6401906 1.3104346
5.6533999 6.6154399 44.854553
0.22200149 3.8094418 54.443069
10.055911 8.3552303 37.186008
4.1083851 8.1386356 2.1862268
5.2940245 6.5281267 45.133469
7.842339 12.593122 5.9178543
7.9561334 6.3816891 42.828827
7.8909755 6.8277221 1.9840188
9.8968105 11.093628 6.7938995
13.125458 5.7449217 47.089184
4.9929309 11.762146 5.764575
6.7624779 0.37765953 39.992821
9.4915504 11.489282 16.625498
3.243566 5.4958959 40.313297
4.0285873 7.1420121 36.513271
9.4670677 11.416102 17.478556
3.2743206 5.4293585 39.336498
2.8665435 5.0364914 45.726589
7.4753342 8.8396425 37.361229
9.3030863 7.7806759 2.580514
7.7186432 12.416105 9.6526022
7.9225016 5.8562064 13.533339
6.7275944 9.8556995 25.227467
10.667795 7.8109226 14.045433
5.8922129 10.295246 18.737335
3.4969542 0.91056001 43.372078
16.201775 4.780529 49.968773
1.0452321 2.5074978 52.105614
15.574577 6.8363218 40.630722
14.785221 4.5244889 41.267193
5.7883606 7.9990396 39.176121
11.361515 4.3779888 34.942024
7.6409125 6.4813595 5.9813366
11.414623 6.9992275 23.057281
5.7584653 12.359316 5.1682038
13.381937 8.2495108 39.254295
4.9410563 10.060907 12.943454
7.4940891 3.3471394 48.619362
11.522274 4.3511362 35.276459
11.735061 8.1334486 28.937206
9.5198116 10.90254 21.487932
5.275949 1.0283988 37.630577
9.7128944 4.8532748 23.426483
5.740911 8.9123001 35.001408
6.3394914 5.9754405 46.2169
8.87747 2.7419288 44.762074
13.447974 6.3398056 46.833244
4.5694151 11.322322 5.1408892
12.972485 3.8729291 51.911488
6.9869537 4.9099636 28.675209
15.099208 7.2363915 44.760361
5.8324299 6.6865377 27.018757
12.005203 7.4355617 27.615816
14.216866 4.7294836 38.910751
3.9726033 5.1821156 54.30452
8.794383 10.268641 26.488081
2.3650169 3.5409217 45.283997
4.8105912 11.829214 3.8746176
11.537924 7.6937838 22.697668
5.3736334 8.6948071 34.003471
13.471133 6.174531 50.485203
8.8874836 6.5982676 9.4449778
12.987442 5.2939487 46.591015
3.3321059 5.7559667 41.695282
9.2878656 9.8874674 33.84227
11.417702 7.0961647 22.6991
9.9908047 5.9149661 17.901972
9.2887726 11.70012 4.4204865
7.5926905 6.123857 11.312604
7.426404 5.8605895 44.958233
6.0535784 7.9539928 39.612915
9.6371784 10.833845 21.577871
7.8108897 4.8102131 46.352356
9.2397757 11.362947 18.767456
14.362719 6.7499428 36.797997
7.9377365 9.5420895 35.771687
10.896289 6.2717943 20.681591
9.4819002 11.215637 19.097176
5.7579622 6.6943607 16.818859
9.9054594 11.322535 14.707132
6.0388184 5.4073324 31.136219
13.675133 4.5263462 40.949848
13.065609 5.5661087 47.618423
10.971103 9.4730949 34.668957
13.859564 8.1820593 38.343262
9.4445143 11.704577 8.6004419
3.7302494 6.0012512 44.353325
5.2855206 11.148046 11.472717
9.2948284 10.915785 22.012985
3.9499664 8.5181818 2.5749593
6.996511 0.43746808 44.118282
13.982115 6.050931 36.41317
13.009489 5.3695025 49.155758
12.891483 5.9643793 34.550709
9.1822033 11.903021 6.9778624
10.356789 3.3521068 38.98547
7.3537402 6.257349 9.4666424
8.0960979 5.894711 43.635365
10.310439 10.763835 11.498873
8.6412516 1.182503 39.727951
2.7518089 1.5595728 49.01403
4.5835581 10.540716 8.8456783
9.1662941 11.838127 13.939849
10.501805 9.2797136 27.791222
9.3563337 4.9416533 21.886978
4.8936596 4.9615197 52.345879
8.4458294 4.909513 44.913387
10.006635 5.8363991 38.929337
15.477725 6.4383574 39.641388
9.0610142 6.0216007 40.949249
3.624311 1.0700755 47.647514
6.1226196 3.7866583 32.540588
10.165744 2.7489188 38.901772
8.6871405 5.0305185 20.379313
14.421575 4.9259419 38.574535
6.3100729 2.383276 51.076935
5.8898125 7.7614336 27.636333
2.5802226 4.5613394 44.354012
8.1370068 12.202421 12.520086
6.9120817 12.33251 10.049474
5.2076244 9.4377975 16.756586
5.1560721 10.82777 11.954767
4.7154007 1.6596327 53.425198
6.9056082 5.532856 20.168259
1.1053164 1.7206709 54.153431
16.339594 6.3932242 45.272247
3.3002839 5.7338476 42.506367
10.401365 10.680672 17.108067
7.4434905 1.702863 34.706085
15.074231 3.4053123 49.347473
10.923647 8.8844309 13.392162
6.8137045 12.376449 9.1980743
5.9364796 7.9583998 31.196545
12.492422 5.6838398 34.221561
6.0787621 8.2012768 31.307108
15.744192 3.9816241 51.258144
9.1491051 2.1929591 43.054024
4.879961 7.6050591 39.021751
8.7222977 7.2229929 38.938278
11.579639 8.33249 29.584145
10.592143 9.396203 9.8584738
4.0509887 0.50900698 43.407982
4.8534498 5.9225516 47.374962
4.0825925 2.918757 35.565918
11.393372 8.5017138 28.788759
7.623908 5.50982 45.350945
1.2098868 2.5316141 51.635231
5.7441545 9.5527744 21.072128
13.17873 5.7777948 49.170006
13.613029 4.6068964 40.114601
3.7844443 5.3258848 54.14975
8.0854511 4.0123138 46.82803
9.0000372 6.8047099 8.2990227
12.363576 7.5204434 40.027271
8.6616917 12.2216 3.5548158
4.0242023 2.65397 36.182999
3.9310908 6.6427317 39.616299
5.7881618 7.8555517 39.801422
12.00453 8.6335306 32.715458
12.090922 8.0005856 30.997404
5.764173 6.6953936 17.590101
5.8385038 6.4147511 25.235802
10.659327 6.0711441 38.508202
5.9782934 6.5464172 12.860301
8.9686737 4.8013954 43.811268
1.544626 3.0888281 50.528305
5.8223133 3.60799 32.817963
5.9058337 6.4478073 27.178579
4.5593166 8.8299046 10.956429
8.9940109 4.2190399 28.704235
2.7180331 5.1881256 51.28273
4.5307264 2.4634094 55.20491
6.7510519 8.9986763 31.829479
7.0313597 4.9200258 47.665199
9.2760134 5.6077003 17.517389
7.5214467 5.5191827 16.756664
7.4220328 5.832799 13.85628
5.3569775 0.37445354 45.967426
9.264451 5.5384169 17.836872
6.5399885 11.014165 18.118395
13.464771 4.6592073 39.312057
8.7257986 7.93011 38.09956
5.5845957 3.5491452 33.014427
5.913909 10.396124 18.394562
4.3783474 7.7968202 3.1093435
5.6687412 2.3765788 52.566383
15.038505 3.4992654 48.452393
4.9447165 9.4785328 14.190001
12.295413 4.5925159 36.998474
6.3148537 5.6459455 28.272255
12.922005 4.9668226 40.687389
7.3931646 6.5362439 43.490944
5.2440553 11.769165 7.3538871
9.810667 6.9893665 11.959348
5.9430265 6.4441442 17.523533
5.3964415 8.5697527 36.113632
6.3489408 12.098691 10.53296
10.276418 10.802719 17.295534
4.8190823 4.4276099 54.105888
5.9130821 6.3138785 30.344439
9.594821 6.7203641 38.513351
10.196241 9.7112885 33.405998
4.359777 10.131203 8.1459885
13.083345 8.2235041 39.316765
5.7203407 5.8563943 47.189709
8.680377 2.8973475 33.996094
9.147522 11.919469 8.0217333
5.6364985 5.7262969 47.67659
14.157888 8.036932 39.396683
8.7648525 1.2534819 39.958584
8.7780991 7.210041 3.0972924
14.283776 7.2313814 44.659431
10.135569 4.2014189 33.420116
6.1076651 1.1574559 48.854336
4.0832748 6.5117555 42.206192
2.5632322 2.2799234 45.674999
7.9840555 12.50133 7.3695025
3.9236774 3.8518624 34.856701
16.733723 5.2818389 48.601662
5.7552948 6.7249413 18.440048
10.756835 7.5033569 15.697575
5.7382312 6.6009998 24.132874
5.9335403 7.0230255 29.737066
8.4744978 6.5475068 41.125313
4.9677458 0.65450203 48.118378
5.6651826 0.078994259 43.642288
2.9723573 5.1456785 46.122589
6.4809141 5.433363 28.156498
7.6600194 12.767222 1.8147945
3.4940443 5.3662472 50.73539
3.5285385 1.1895217 41.631634
7.8576941 4.2861681 31.154797
11.260857 8.8273258 19.099115
12.058935 6.6624699 40.081291
5.659162 12.298429 5.2934847
12.99099 5.6093612 45.930481
12.543764 8.1838646 38.98399
6.7359829 12.772175 3.3111079
10.462769 7.3601103 14.302149
6.8905315 4.9117255 30.655544
0.68095493 2.5671811 53.127167
10.695257 10.13924 19.019218
9.5348177 1.8941857 39.320526
3.54252 4.5802341 35.385071
3.2700047 5.1204872 49.589352
7.5454397 1.637931 46.911839
7.8805947 0.78561479 42.969418
11.430578 8.2390871 20.609478
10.837768 5.7351909 23.747484
10.855053 8.1055708 14.590504
13.669001 6.5196495 47.190643
8.3424587 5.860199 13.860098
2.1346169 2.4297631 49.273098
15.74477 5.880095 50.561424
6.2398567 5.7658596 28.011724
9.5113258 2.2021894 41.352295
3.1216705 5.2251849 46.763309
10.640521 10.36658 14.028666
9.8568707 11.009263 18.930296
9.2520199 9.6780081 29.354822
16.463118 5.4200673 49.204819
9.9670019 2.5290914 39.628036
7.0177326 1.0894976 46.765877
2.560885 4.3823271 42.216404
6.0200939 11.951082 10.434763
13.702282 4.1707034 45.183094
6.0216489 7.5588379 29.513962
6.6289396 9.8364563 24.91934
10.455649 4.2440367 38.964127
3.6025715 5.2560844 49.261566
10.485274 9.2546406 28.026173
9.2213287 7.0851216 7.2374296
6.569387 0.57222593 38.575623
6.9136305 8.9258795 30.05024
5.9351258 6.8655729 29.524435
5.5098 7.080864 16.604746
13.189795 4.7373443 41.238667
16.155365 5.3394914 43.112938
3.4885395 4.4812078 35.805603
9.972414 3.4485316 41.37738
9.3069935 3.6035013 43.780754
8.9814873 2.2844181 43.864326
6.5607595 5.3567495 29.710703
7.1527443 9.9206924 26.267643
10.135553 10.415863 5.1080418
8.7912655 1.4865925 42.46537
12.350479 8.8651752 36.179165
8.4379997 8.0910978 38.136925
9.3031225 6.7350364 10.435076
11.690007 7.1669693 24.811117
10.086732 10.456314 4.4161649
1.4991179 1.6424166 52.556404
5.2880645 6.0940332 46.736172
6.5394754 5.8867645 18.107134
5.6897974 2.9199419 52.932121
1.417479 5.1632466 53.862549
8.2579422 12.372221 8.3893986
13.770904 6.4378881 49.569508
11.606086 4.3028202 36.901848
5.3719335 7.1691046 42.368896
2.0575047 3.4819508 49.336449
5.5393667 9.7916431 18.490704
10.871022 9.974184 15.513811
4.9959183 7.6993699 38.948624
5.2836509 7.3791623 13.696188
4.192214 1.5890173 54.322174
4.2150354 4.9128819 54.586361
5.0492301 9.1713486 15.584428
5.6103382 0.40233406 39.915737
6.8713694 4.9750357 30.462132
8.7185984 10.826089 23.513851
2.1459911 5.5286269 55.118782
8.0735607 0.9275474 37.953026
4.5458279 2.1497235 35.701942
6.3319788 6.6056094 4.2207742
3.601649 3.8578649 35.914116
5.9738269 10.306794 19.153269
13.846292 3.5867224 48.871807
7.1778755 4.8711276 47.457283
7.3193855 9.5442266 32.990654
6.9067869 10.02314 24.979889
5.1316805 11.286306 9.6230106
11.407572 7.8648391 20.186523
13.228031 5.8945541 50.060783
10.773504 9.6585255 24.363525
7.4698753 5.50314 17.12396
10.809311 9.0959787 27.365887
5.8134179 6.3781791 30.618202
9.2343903 4.8930125 22.013437
2.3858824 3.5407133 42.499893
7.2489438 6.0064449 12.661551
5.5670867 4.1908646 52.540108
8.7551632 5.4404564 17.605366
3.8487682 6.7329798 37.076069
6.9788094 11.819219 14.611546
14.083132 6.4466085 36.343178
12.249992 4.8766961 38.1003
9.8146257 9.9049292 26.538563
3.0477386 3.9052048 38.567917
4.2622881 0.3998937 43.068413
4.7590427 7.1986217 40.90097
9.1489716 4.2780538 30.475254
11.709386 5.4805536 38.550358
16.118526 4.7247572 44.312279
15.295563 6.4562082 39.089539
4.6005254 7.7950134 6.3547068
10.40005 6.3630214 17.582302
10.335292 10.842875 14.868366
3.8175974 6.5480351 34.082535
10.686167 9.6977558 10.874022
13.317368 8.3708305 38.285439
10.183617 10.963091 11.676576
10.532995 5.0558386 25.473938
8.5928841 1.8386698 44.423443
14.483944 6.8524075 47.884598
10.90374 9.68958 13.519003
5.4774942 12.500992 1.9781642
14.574286 6.3624263 51.831478
6.8956709 5.0732307 47.534958
14.179386 7.6645498 37.044857
8.0269651 11.638695 17.663532
10.130992 3.6845274 40.662613
7.9456196 0.74191445 41.306103
13.00608 5.1968274 45.969456
4.4389296 4.7791023 54.374809
10.060739 8.6507082 5.8803978
11.325527 6.4790888 24.036654
8.985404 9.991188 27.808857
14.439921 7.8874536 39.367142
13.386868 8.3949003 36.660381
11.974009 8.1705341 31.110497
13.067837 5.7520614 35.224884
9.5289402 11.453091 4.3162651
5.5891757 3.4263229 33.092663
11.199717 8.6715908 17.654436
10.197028 10.837812 9.5223551
9.4605913 6.5286813 12.82642
5.7308607 6.6631637 24.872187
12.953671 5.4873571 50.582771
5.2496848 9.7874699 16.125818
6.0943584 6.1614237 21.408327
5.3151817 0.96795601 37.898247
11.602032 6.6709189 25.234112
10.877831 9.1865578 31.690714
14.359798 7.7680178 38.038715
7.6945457 5.2273979 19.807642
8.574831 5.5050106 16.717089
8.8711262 11.966205 13.907635
6.1657166 12.419504 6.5059204
6.7850456 3.7181106 32.392525
3.7378063 2.8679299 36.795753
11.863213 9.089447 35.374802
8.1760368 5.5079169 16.297316
4.9822569 7.8645391 13.061998
8.348238 1.0204988 38.706581
10.32004 9.3270512 6.693079
3.8328409 6.0312157 44.746777
3.2349005 5.5251508 40.797054
10.564438 6.0635877 19.506273
10.501722 9.8351126 24.608768
6.5522223 11.467134 15.5936
11.236657 4.1802521 37.10004
8.1069708 9.7738876 33.370148
2.2249889 5.457098 53.629848
16.636282 4.7732859 46.425503
6.1774607 11.73547 12.59054
7.2716436 6.0845728 44.709442
9.4038153 7.4916062 5.6987615
11.382714 8.8671436 24.807968
10.552649 3.3376718 37.922939
7.9211221 9.7759457 34.671055
7.8367438 6.7475181 3.202647
6.3564558 5.1731372 48.344162
9.6212559 11.523233 8.3777332
3.695467 6.3377113 38.514748
5.0751081 0.26945111 41.457771
10.001311 9.1320066 3.922781
8.0791883 8.8929939 37.193222
10.280984 8.1524153 10.179203
10.062193 11.049282 9.9253826
5.5013771 7.3715706 22.349041
5.3900723 7.4695091 18.826267
5.0221562 0.69384313 48.619377
5.2458944 7.2037296 8.3000603
12.717607 7.2760348 41.089054
2.5555007 4.8066716 50.324066
11.252142 8.8057165 31.070024
4.7731304 8.5462236 12.688011
4.7800102 10.465805 10.584721
3.2011795 2.3507128 39.609444
6.252296 6.6308284 4.5158644
8.7357941 3.405664 45.430939
10.95505 9.6973171 14.94541
4.2341781 3.288244 34.737682
3.7118363 9.3475208 1.6840341
4.424367 0.70202768 47.852215
3.1988959 4.4137683 37.705948
5.9035645 6.6872282 10.61429
5.2432489 4.0331297 53.599472
5.4946747 7.7521229 23.139709
10.736151 4.8376579 28.014011
9.2880144 7.6863594 37.933403
14.532755 4.2988529 42.272346
6.7915115 3.615351 50.248825
16.480871 5.7070637 49.034592
7.7834153 11.705427 16.903156
5.9173431 9.6142187 22.085169
3.7751203 9.9010162 2.396626
5.3104014 7.656126 18.019045
5.8267484 0.46713409 39.389709
9.719635 7.8690233 37.635071
7.6917 12.440305 9.2414455
13.336037 6.0161819 49.407402
5.1474466 3.4555278 54.258408
6.2009525 5.9689355 22.663639
5.0929556 2.4836974 34.331207
3.1137271 2.420393 39.84832
9.4808006 11.609238 6.4026747
4.0865216 10.504047 4.4209394
6.8502464 2.1921918 33.991791
8.2147675 6.3218217 42.371765
13.518223 8.3227062 38.196198
7.3782091 2.0309064 34.324211
15.456094 6.4551792 49.442345
9.1647787 11.397055 18.785255
5.8068385 6.7328978 6.6541109
7.2688937 4.3898153 48.218346
8.0288353 12.605974 2.0514534
9.8761969 3.2786014 41.661339
4.0872078 8.2038527 2.5068123
6.4181442 0.6275903 38.149422
7.2389841 6.1455045 44.654362
2.3849561 3.0709116 42.705257
12.321939 5.5143571 39.788937
10.312093 8.0938425 10.593856
9.0974255 9.8533659 34.860043
9.540637 5.2197747 20.344202
4.3767552 8.3860502 7.3378878
5.7651606 12.086212 7.859745
12.009156 7.8287015 29.802004
14.594509 4.8496318 39.248512
5.4542298 7.5226812 21.508614
9.0881252 4.5448141 43.884487
11.740577 7.06495 25.248226
8.9879837 11.217468 20.361446
10.582538 9.6358252 34.093056
16.105549 4.1130548 47.207386
9.3509855 1.83144 40.782516
9.663516 4.8827219 22.997618
16.533585 4.5104418 48.143574
7.2795744 9.7692986 27.423615
12.404365 5.6160402 40.717991
9.1480846 9.8049765 32.881298
9.1338539 7.4933505 3.5061059
5.996006 6.2907901 21.458696
8.4519205 6.2173567 42.135319
11.702803 4.3910198 35.519287
2.7507839 4.8490973 45.479145
10.061959 5.7768097 18.847401
7.1783757 10.679403 22.277412
12.423674 5.7448201 41.063309
9.5873518 6.5715876 13.059925
10.099139 6.3657866 16.342709
5.0034943 1.5854585 36.051212
5.9495649 0.7584458 37.79858
11.552069 6.6858859 24.820238
5.7784157 10.55439 16.77005
3.8536911 10.028507 3.2236474
3.4999051 3.1711612 37.1394
4.7502303 7.8624716 37.245941
16.158966 6.5973315 44.736977
14.75598 6.7970076 48.677441
9.657383 5.7407846 17.714277
7.0451374 0.70236129 37.697365
7.2893186 12.217615 12.197412
3.8274808 0.77830619 45.718079
15.691474 5.3371339 41.091217
8.5076265 9.8442755 33.569214
4.937335 6.2446318 46.098331
3.8606536 10.058008 3.1581433
10.403039 2.7927332 37.426601
5.0059195 8.3290396 14.880712
5.1964054 7.0185966 31.702099
12.502805 8.2101755 38.871101
10.567244 4.4963655 33.250233
9.651535 11.390165 6.0484457
7.3297682 9.6363831 34.277466
16.340775 4.4426641 46.212051
7.432097 9.3868999 29.501635
10.31787 3.5490003 39.416206
10.121089 5.5977898 20.01556
3.1489692 1.3424827 48.461498
2.5254815 4.3224053 45.297405
6.1981916 5.9139061 23.591839
6.112886 10.42614 19.365742
10.917133 3.7226889 37.15176
5.9273405 9.2414198 23.701225
6.6373348 0.54840744 38.672054
3.5964162 4.9274859 34.821354
8.5691452 1.7337394 44.269974
8.91611 4.5169764 24.325291
10.896119 8.5279341 13.813396
4.9958277 0.99002016 50.777557
8.0838642 9.518157 30.367451
4.8319492 5.409976 50.12677
8.0593357 6.5327935 42.226898
2.9735427 0.92321187 53.112255
6.0528979 11.873474 11.160593
13.1359 4.6952195 43.130138
8.8491821 9.6320286 30.237444
6.8523417 8.9431105 29.580833
11.202029 6.8011622 21.045109
10.180847 10.849342 17.778498
6.0074401 0.35534069 39.817677
10.740736 5.6448555 38.378372
5.3235507 11.83351 7.3901687
12.704784 7.0403152 41.476349
6.8967714 5.7670889 16.151075
2.9759755 2.5717115 40.018726
15.33481 6.4635472 49.66811
8.5800428 12.110121 12.999218
13.191858 6.5122943 44.272324
4.3577561 10.917785 5.3507118
3.6887798 9.5825214 1.597827
7.6565552 9.513629 32.361607
5.3653922 7.1248198 8.9120522
9.0270681 6.6674919 39.369453
2.5098314 4.0625162 48.372902
5.6194878 9.1237392 21.752716
4.5423379 10.4959 8.6476994
8.6459332 6.0499325 42.034122
4.5712662 5.5670948 48.983097
10.228204 8.0084686 10.274482
13.218378 5.8438001 49.338852
5.6484308 8.3189163 32.378525
2.5153074 2.8714337 41.758972
9.8782988 11.313678 12.476266
3.260232 5.2894425 38.634178
14.751773 3.6753728 46.888927
5.4626093 1.8480424 34.691109
8.4578304 4.4991989 45.500015
6.2998328 6.4081645 11.689497
4.7856874 5.3332863 50.749268
5.5322442 12.34317 4.1339521
16.546764 5.9546432 45.395138
2.004781 2.3830376 49.664673
4.907176 7.3249359 40.671719
7.7626147 3.8122044 32.199707
9.2555695 11.443575 17.997223
4.2778406 5.6922922 47.94252
13.634617 5.8770146 36.003895
11.076758 9.4465885 20.565777
5.0297537 5.6566343 48.369358
9.0460281 4.7945414 43.658051
14.993406 4.3280544 42.684479
12.362732 4.9012938 38.327713
4.0446754 6.1744108 44.744778
12.104168 6.1082153 40.065193
9.5108929 4.759325 42.430511
15.894505 4.5906396 51.663071
8.3170815 5.2867427 18.42651
5.4771137 6.9321747 5.6325674
4.3368139 0.37923613 43.013279
13.041507 4.1728559 49.621532
8.6385708 4.5402894 44.979668
14.659094 7.2046204 37.820927
10.146368 11.016936 11.90344
7.3660965 0.76910031 37.170773
11.781212 5.2461071 33.63105
9.500123 11.637101 12.722748
8.6209135 7.2177973 39.10268
10.574508 9.6373329 33.991444
12.676544 5.7520885 42.832481
11.086226 8.1128979 16.675421
8.0201664 12.277337 11.473926
6.9784608 5.6030288 18.756876
3.7438104 0.97172964 46.839554
6.9594402 5.1616549 24.219938
5.7372522 6.7209558 20.386837
8.112112 3.4060845 33.009743
9.6396513 6.8320222 38.377724
12.562137 6.9522743 31.414545
5.4844046 7.6292095 23.065014
7.2485299 8.2661514 38.667053
7.3608127 3.6608996 32.40324
5.6316323 6.3057122 31.010672
8.5546055 4.2746658 29.926987
9.1235714 3.4395256 33.674911
4.0004187 7.1458173 36.090038
7.0318394 6.3419371 7.3504858
14.019543 3.5068567 48.891975
5.0008349 9.9203138 13.822487
9.8820724 7.7493944 8.6844015
6.9947758 10.227127 24.283079
8.4204283 1.0377553 37.445038
8.2791634 11.896686 15.597462
10.739048 10.104661 18.523468
4.1479106 6.7860994 40.598881
0.70942193 2.2515824 53.595001
7.6265049 4.6194687 47.107346
4.4877849 8.7781143 10.060986
14.524046 5.969564 37.382256
14.370476 7.8855438 38.697556
2.5939968 4.2042603 47.525757
9.1773777 7.8404346 37.861267
8.3674746 9.2686434 36.503601
2.7611146 4.7449756 49.608032
6.6187825 11.302812 16.669712
4.4885073 10.209857 9.0417414
5.9720368 5.7172613 30.872383
6.1798892 6.1180072 19.790125
8.2821522 1.2730423 43.936356
5.8033409 6.7143607 26.67934
6.7163887 3.866715 50.235111
11.997818 7.6387057 28.514292
9.2534618 9.8936949 33.734402
9.6912088 4.3422451 27.207476
8.1853075 5.163497 19.579172
6.8598771 10.380285 22.978104
8.9539251 4.2533145 30.919163
3.6496608 6.0383935 43.364807
5.9682798 6.4123478 17.892857
4.4502239 7.9582376 5.6794486
12.102151 6.5114956 28.540779
5.9374566 1.6535697 50.749458
4.1278167 1.1125004 40.114323
4.8512487 8.4729223 13.336407
6.6418333 12.221466 10.487097
13.843785 7.4902105 42.719513
2.6761484 5.0115056 50.698208
14.600132 4.4380469 41.383186
16.368383 6.4045477 47.14558
11.250912 5.3731494 27.356602
8.7221136 1.160242 36.431637
5.4793749 7.4848061 22.348295
8.3791943 11.010093 22.264095
5.586462 8.2933121 23.82345
10.64749 4.8080235 27.482777
9.1054897 5.9950786 14.611517
16.276024 6.5063648 46.207794
8.9987812 11.245714 20.226326
6.2054634 6.0696678 20.349833
5.180933 9.1249752 17.242395
7.1914148 6.1198912 11.659306
4.4367409 8.0872393 6.3328743
4.8934646 1.2204604 37.799438
11.791383 7.3522515 25.384148
9.4939537 11.660271 9.1951389
8.0791216 9.5814152 29.778959
3.7795775 5.2167797 54.734581
4.2578344 5.9903221 46.515324
12.814835 5.0913286 41.824677
5.6341782 6.8799772 22.379757
12.982285 4.8914337 43.372944
9.6525002 4.3346014 31.604406
3.2604902 1.2112004 45.530651
13.153257 4.7821145 39.593014
9.7157784 5.9939194 16.618031
3.0242565 4.0231667 38.684513
8.6967154 6.5086594 9.3750277
8.2504158 12.222019 11.777679
8.4479294 4.0160189 31.900148
5.6983829 6.7540631 24.799732
5.3851004 6.0986757 46.72266
4.0385256 6.1804399 44.566818
8.3631964 12.42761 4.9563785
12.812582 6.2181969 33.790119
14.984328 5.3755231 38.881927
10.145638 2.93521 39.743423
8.0560646 0.80004835 40.741161
12.09992 8.2374868 31.811108
3.8592963 8.7930031 2.5605602
9.2949772 10.113719 26.667147
7.7367516 10.835112 22.742863
4.7099004 1.4489033 52.926411
8.3543148 7.0574331 1.6125185
6.7633018 9.3354921 35.143913
6.8210959 5.5046425 46.622635
5.7173109 6.632504 44.785522
6.3877211 5.5540886 29.537951
3.0040228 2.3122499 40.410736
6.2932034 6.6049256 4.6363344
7.5631943 2.9006329 48.357906
4.7176752 7.549984 5.1721244
13.953705 3.2420919 51.255318
7.4150906 9.3735819 35.948837
11.03566 9.4424343 16.011837
12.456968 7.0222263 30.78886
11.632952 7.7795749 23.559803
1.045193 2.3720486 52.294071
5.3795252 8.4534101 20.846869
4.0137377 0.92315269 52.395153
8.8275433 7.342236 1.8078868
8.1584549 4.1229362 31.519897
6.1228743 8.6289358 27.005121
9.4660177 11.624975 6.8499126
7.1234264 0.73125535 37.423759
9.8255749 9.481863 30.865089
16.128477 6.3766336 48.386963
4.8293705 7.4773097 39.552738
8.4067087 5.3890991 17.582994
11.092531 8.8111067 27.724714
11.576377 8.4433393 37.527359
3.7127523 5.3942862 50.737785
10.641628 10.21919 12.006451
9.005084 12.033431 6.3769488
6.0597229 9.6150036 23.071659
9.9955482 9.7996759 2.4323297
9.628046 11.52344 10.982685
7.5813303 9.8586149 27.655819
2.9250271 4.9942255 41.109802
5.8523254 7.4697905 27.738405
6.11378 12.573406 4.4394321
8.2836218 4.7207842 22.852974
6.2372198 6.6136408 4.7302651
4.7529311 7.9676099 9.726676
11.799804 7.9170008 38.61097
6.6323175 9.0318871 32.20929
7.2317801 12.084075 13.207635
10.082842 2.5050983 38.567043
9.5989513 4.3529878 31.247906
1.3731995 3.448597 51.050266
8.4969177 6.5932922 40.957306
4.2909665 8.2629566 5.6982265
4.7432966 6.8881464 42.498322
9.1217546 5.5980444 17.166002
4.1689386 0.77356398 48.180706
4.9079561 3.5492797 33.557354
9.9271193 8.3313522 6.0318341
14.858338 6.5301242 50.263351
8.5380554 6.3361797 10.648134
12.069995 6.9233699 40.035416
3.5521569 1.9508114 39.326519
3.408659 5.5149426 52.687691
3.4234188 1.4905779 55.251736
14.588375 3.3156581 52.034599
12.262628 5.6255012 33.677437
5.0013976 7.3036814 41.117538
5.8073492 6.7695117 4.7480555
4.4858332 5.8623104 32.576622
9.367919 11.612479 3.537967
8.8103104 9.8321342 35.004799
7.1684027 12.290226 11.149464
10.556055 5.1986337 24.877174
13.767805 4.2407465 44.262772
6.0364084 9.0432558 35.071518
13.109927 5.8198729 51.107964
10.227769 5.9209614 18.755926
8.5798683 4.4756017 24.497204
13.634611 4.4779496 41.870468
6.8280563 6.6048183 2.4240444
2.5617352 4.060638 41.3815
6.4972658 6.4981956 44.78363
12.082993 7.0105753 27.826256
9.2863579 6.805213 38.716072
10.836288 9.7404871 22.252684
4.2464428 1.8907312 37.350163
9.5495749 11.500597 6.0979242
2.7401125 1.8182777 43.997326
10.185068 9.9354687 25.382526
13.225721 6.7742386 43.681923
7.8544798 9.7153463 35.026749
4.0071626 6.4468913 42.365589
14.584214 6.6423235 49.858841
12.68074 7.5840478 40.472931
10.264949 10.167172 5.9239159
7.9557018 4.6252685 24.281227
8.4985733 12.325706 3.5387208
16.424603 4.5724969 48.810577
5.741426 6.7258782 17.38504
5.5474606 8.7212276 22.379196
13.042809 5.5279245 47.186783
3.1849825 1.3193263 48.429382
4.0294194 7.3176699 35.192612
11.724348 5.4594469 31.449697
3.1460242 0.89138287 50.838371
5.7106237 7.6587005 26.181332
7.2209787 12.229437 11.883244
7.1712966 11.301612 18.545177
4.5604563 0.30807099 42.696964
5.1627522 9.1627884 16.957701
8.6693907 5.6853404 15.576799
10.317358 4.6568871 26.993084
2.6538622 2.1443129 46.206203
12.816254 5.5799603 43.798622
13.740974 3.3496039 50.616364
6.417388 12.196235 9.7195835
3.8173378 9.8092642 3.1781964
3.5925949 6.1649666 37.608963
8.7457342 3.4158783 45.379135
4.9972005 12.043072 3.7155335
4.8656268 7.531467 7.1147718
6.6849351 6.4264922 6.5150838
12.825699 5.0173101 39.878239
4.8955975 2.5126212 34.520073
8.9601212 5.6346135 16.585394
14.870334 4.8391981 39.966282
3.8859224 1.5174515 39.556435
5.6359167 2.6144629 33.747536
8.075839 9.9286251 28.004551
5.4848795 5.2973452 49.540226
3.7223539 1.3860619 40.399235
7.1652536 10.112508 25.347685
5.0618448 7.020771 31.901651
9.3653393 1.7033316 38.766182
11.302876 8.6216478 19.039284
4.8715434 7.8552313 11.087265
10.985974 6.116888 23.025513
12.595116 5.3157816 35.15506
5.1089506 7.4838614 11.105963
5.6560082 0.5344547 46.687172
10.922135 9.734499 14.438875
14.958664 7.037426 38.518394
7.6948924 7.5744238 39.885956
13.111509 4.716392 44.106918
3.9924505 7.0775132 36.409107
14.870907 3.2987373 50.296219
9.6383095 4.3518071 31.408752
13.910522 7.6354675 42.17503
8.3855782 12.385769 6.6822023
3.5966015 6.2659674 35.401924
2.8233733 4.19629 39.950485
15.463714 3.7777538 47.114941
1.8789479 5.3717589 53.743439
6.1034422 8.019104 28.581881
8.5582066 4.2018619 27.500244
8.4356585 1.0791647 42.019726
6.6269431 12.691933 4.5326285
10.564377 9.0956707 10.058762
3.5263033 6.0171661 35.799553
10.614115 4.902071 38.406162
4.1537609 2.2537839 36.651291
4.0611162 4.3988643 33.996124
9.6944036 11.201075 3.4575808
4.8126488 8.9210415 13.368106
11.307713 6.1587515 24.952105
7.7631154 4.4417095 26.885746
3.7925339 6.5958338 34.297291
13.499094 6.1964011 50.487301
10.765274 7.9783735 14.232357
3.2648649 5.5370388 45.479469
8.1452618 12.199991 12.695641
5.9216976 0.12276909 41.758942
8.5245876 4.2025394 27.804077
10.00955 11.121212 9.6045284
15.204548 7.4670439 41.792671
1.3531728 4.1243405 51.680565
10.473054 9.2378931 30.868877
9.2167635 7.120173 6.9009552
13.171323 7.1479273 42.480068
2.0313201 2.6040618 49.39817
11.486092 8.7352657 24.488163
3.802681 0.82734835 42.192371
2.867413 1.4461861 48.951336
6.0402842 6.2151356 21.687748
6.3940306 8.3503075 29.912416
10.250288 10.480755 20.730497
3.1233487 3.7854977 38.175667
9.4030371 2.4877651 34.785057
4.8126965 7.643465 38.578255
12.007643 7.8230624 29.609882
10.168866 8.4240942 8.2802105
6.5302248 5.3766584 26.392565
11.498672 5.6771188 27.507315
15.341901 6.5804186 39.310738
4.356389 9.6209297 8.8793564
10.036861 10.340758 23.620981
10.970673 7.7181358 16.633625
4.3821011 9.975584 8.5651503
3.2828228 2.5021939 39.036777
6.1288042 7.0730152 43.225376
12.381882 5.7643013 33.579216
5.9107976 7.3125477 28.512369
10.713434 6.9431152 17.184982
15.746114 5.7536201 50.942513
13.792745 6.09622 36.032837
7.1657052 11.966619 14.016413
7.2704515 0.40942031 41.415333
5.9562492 6.4705276 15.511622
5.8692584 4.6103487 50.940838
7.3773975 9.4355488 32.349976
2.5086617 2.6247826 47.704811
6.1354914 1.6252134 50.165649
10.08803 10.129206 3.6317787
7.3111296 5.7997227 14.363379
9.4624319 5.5957189 40.836632
8.8907089 5.5416784 17.043633
10.675177 10.338804 15.629294
4.8022614 5.9394121 47.32761
8.2240801 9.6898365 29.413446
2.8567758 5.4473081 55.376751
4.5368495 1.2119619 38.751141
9.8906937 11.294957 11.78817
4.6875005 2.2965231 35.111496
2.8412046 5.2693663 51.502144
6.1211586 8.6010113 27.08614
1.7780238 1.8566844 51.033867
13.913532 7.9661026 40.642677
6.2346945 8.17309 29.12402
5.1925054 7.932332 17.084028
5.280067 0.57079804 47.148643
9.5675869 9.5442123 30.273449
6.2099819 6.6194801 5.1358204
9.8407068 2.2253351 39.077248
11.548965 7.3338852 23.317265
13.970779 6.5070896 50.06752
5.7259336 6.7528439 25.374231
8.3838539 2.8015099 46.181007
6.7745557 0.30560637 40.5396
7.6404943 10.621095 23.863214
6.3454189 6.4394546 10.806919
10.596443 6.1880984 19.077782
4.4999928 5.2318354 52.172375
4.9952469 0.14095095 42.927589
0.70758426 2.341449 53.372303
8.667016 11.086424 21.685978
3.95401 6.9069033 37.001808
4.1392827 6.5264397 42.512035
5.5922775 6.9414206 16.229712
2.8521445 1.8358393 47.742558
7.4366217 12.360962 10.631658
4.0129662 0.80033237 48.581253
8.2153549 3.9839251 31.953724
4.2632742 0.48355874 45.122147
12.441372 6.7445698 41.129505
6.5617638 1.0614456 47.632748
6.0624166 1.4720924 49.981998
4.6840057 7.555089 4.6803937
2.9889703 1.6742299 46.961243
6.7475705 5.0620184 30.495224
7.4027405 6.6373372 3.5963194
4.7830105 1.439991 52.750889
5.7850657 3.5671504 52.665653
12.987619 4.9723744 47.996117
10.10386 8.8857822 5.6211643
5.5257049 1.4710691 51.222191
6.8814588 12.412915 8.764101
9.7439775 11.115683 3.3603072
5.4454203 7.6764159 22.243275
6.9335485 11.290749 17.9072
5.4287405 11.654339 9.371932
16.89967 5.1774549 47.907616
3.7248206 1.8578022 39.031776
13.289488 7.2472091 34.335316
5.1418257 10.439449 13.214354
9.8603001 7.2271032 11.035655
12.512374 6.9823394 31.091084
6.3784952 3.1958647 51.356472
13.972256 4.4410629 41.22884
13.440463 4.456728 43.588623
8.1945477 9.2528057 36.560387
14.52278 7.2102385 45.161476
7.2573919 6.2559757 9.317379
15.354757 4.727963 41.788193
3.2073593 2.9142344 38.608521
5.0895371 7.5165606 10.521548
13.100138 7.8794146 40.476593
14.187332 6.3652201 52.024261
2.603502 2.4313912 47.125008
6.6728268 12.527534 6.9476061
7.3987784 2.5970583 33.701332
6.8801885 12.188831 11.589506
5.0944052 4.3655872 32.740913
2.6279802 4.0263548 40.838387
11.510307 6.0268879 26.447027
7.4146862 4.9169207 23.803915
10.597032 10.26597 11.556229
9.7092056 4.3407865 28.93181
5.2390671 9.0161133 18.015999
6.3240743 3.4999251 51.392731
4.2574525 7.2541699 37.71352
3.3655763 4.0280337 36.817074
13.807747 4.5401649 40.349197
6.1124878 6.5636587 7.2527814
7.1219172 11.315181 18.22854
10.501333 4.9704013 25.726233
5.07091 7.2341661 6.194037
4.7900767 6.1398373 46.461033
10.399207 2.8133311 37.521584
15.183254 6.7482419 48.627499
7.4013309 11.044551 20.769669
4.2933998 6.7182779 41.850441
4.6402278 9.2221031 11.841203
12.954035 5.5616474 51.991795
6.5787373 12.069577 11.673935
5.1261573 10.046652 14.411499
9.5591993 11.071035 19.905544
11.612228 5.3634849 31.328114
15.629251 6.792407 47.541553
8.3975649 6.3190813 41.987724
14.468762 6.537364 50.890373
5.9958854 8.4834366 26.630472
8.3665276 10.709435 24.222021
2.7902625 4.7427773 46.726048
11.245793 4.6758776 34.087666
5.8802018 8.3406525 26.250641
3.8340631 6.7366848 36.830395
3.2397261 0.8961271 50.458214
4.729063 8.5812473 12.423232
8.0379353 5.2786131 18.59609
3.1311111 5.0803981 47.468838
11.511465 8.1804609 22.010311
9.3682842 2.8116763 34.503014
15.387306 4.4880066 42.867477
4.4470491 8.4820023 8.7851458
6.0827398 10.403981 19.37467
6.4380379 8.5796652 37.772503
7.9263453 4.2856388 31.097746
4.0187573 10.249202 4.5137396
2.9055524 2.5109873 40.417477
10.218071 10.503378 6.8397412
10.457209 9.1554317 36.033607
12.35718 7.3292446 30.53034
5.5143933 11.494702 10.925254
5.4749341 9.0694551 20.500771
2.4432406 2.5037262 45.032791
9.7231731 4.3935442 29.938835
9.964859 10.93643 18.807163
4.2221279 6.8155031 33.166748
10.068391 8.0411787 8.7701464
16.156857 6.4802933 47.836403
7.5249157 10.547665 23.960047
3.7698066 3.0690656 36.307716
8.9751492 11.974159 12.322556
8.2776566 4.3225789 29.546915
11.222462 8.3807344 17.865473
2.4335277 3.1248271 46.575047
4.7673726 4.2966752 54.467857
9.599597 4.9396844 22.494684
4.9741774 3.0225997 54.702568
10.52492 3.3653345 38.126446
5.3448191 9.5078201 17.826584
2.425494 3.9420965 45.198784
5.8833442 1.9376415 34.323452
8.0436907 2.1379187 46.475559
9.443222 8.0831432 2.072948
4.3779812 0.36130601 44.460114
10.605434 10.439075 14.480698
8.9187365 7.1631479 4.7035947
7.0315633 12.358246 9.9090805
2.7551594 2.0392509 47.589951
7.1011419 5.8188214 14.760372
10.618768 8.9017029 10.905751
4.8500652 7.2783117 2.9115376
6.5209293 10.442019 21.43185
5.9188366 0.72242719 47.4939
